0.136225 0.220406 -0.419255 
-0.356629 0.220406 -0.259100 
0.356629 -0.220406 -0.259100 
-0.136225 -0.220406 -0.419255 
0.039980 0.474429 -0.124100 
0.079544 0.419485 -0.244822 
0.112752 0.329644 -0.347002 
-0.208258 0.419484 -0.151284 
-0.295194 0.329644 -0.214471 
0.405791 0.247839 -0.124586 
0.338272 0.258355 -0.245688 
0.243569 0.247589 -0.347180 
0.006912 0.247839 -0.424442 
-0.129149 0.258355 -0.397627 
-0.254957 0.247589 -0.338933 
-0.401535 0.247839 -0.137740 
0.471547 0.117058 -0.076827 
0.468103 0.000045 -0.152038 
0.426660 -0.117334 -0.214805 
0.072649 0.117058 -0.472186 
0.000044 0.000045 -0.492163 
-0.072458 -0.117334 -0.472134 
-0.426651 0.117058 -0.215002 
-0.468075 0.000045 -0.152122 
0.218816 0.117089 -0.424218 
0.289254 0.000047 -0.398159 
0.335641 -0.117394 -0.339273 
-0.335819 0.117089 -0.339194 
-0.289298 0.000047 -0.398127 
-0.218946 -0.117394 -0.424073 
0.254987 -0.248328 -0.339029 
0.129259 -0.258382 -0.397574 
-0.007140 -0.248076 -0.423790 
-0.243651 -0.248328 -0.347238 
-0.338186 -0.258382 -0.245777 
-0.405241 -0.248076 -0.124168 
0.400843 -0.248076 -0.137755 
0.105571 -0.474772 -0.076689 
0.208251 -0.419504 -0.151302 
0.294653 -0.329129 -0.214096 
-0.040598 -0.474429 -0.123899 
-0.079578 -0.419485 -0.244811 
-0.112564 -0.329127 -0.346372 
0.178252 0.438611 -0.129532 
0.304076 0.361475 -0.130050 
0.217370 0.360975 -0.248837 
-0.068121 0.438589 -0.209540 
-0.029720 0.361473 -0.329360 
-0.169511 0.360974 -0.283612 
0.466909 -0.126798 -0.073610 
0.151667 -0.001159 -0.466774 
0.214420 -0.126854 -0.421842 
0.074266 -0.126798 -0.466804 
-0.397041 -0.001159 -0.288489 
-0.334954 -0.126854 -0.334267 
-0.420996 -0.126798 -0.214879 
0.397031 0.001137 -0.288479 
0.334944 0.126798 -0.334268 
0.421038 0.126768 -0.214883 
-0.151662 0.001137 -0.466761 
-0.214424 0.126798 -0.421833 
-0.074257 0.126768 -0.466845 
0.068077 -0.438611 -0.209547 
0.029719 -0.361460 -0.329286 
0.169486 -0.360990 -0.283591 
-0.178283 -0.438589 -0.129500 
-0.304006 -0.361459 -0.130028 
-0.217359 -0.360987 -0.248807 
0.322348 -0.361460 -0.073478 
0.119923 0.469700 -0.087133 
0.101457 0.451167 -0.170467 
0.250900 0.414250 -0.087933 
0.237067 0.395867 -0.172233 
0.161167 0.414250 -0.211450 
0.138883 0.377617 -0.284633 
0.363117 0.320117 -0.087433 
0.354783 0.295300 -0.170767 
0.291467 0.334417 -0.211750 
0.272050 0.295300 -0.284633 
0.195367 0.320117 -0.318300 
0.167650 0.271250 -0.375783 
0.018123 0.451167 -0.197533 
-0.045810 0.469700 -0.140967 
-0.130767 0.451167 -0.149150 
0.054968 0.377617 -0.311900 
-0.006082 0.414250 -0.265783 
-0.090548 0.395867 -0.278667 
-0.151300 0.414250 -0.218600 
-0.227800 0.377617 -0.220033 
0.085255 0.271250 -0.402567 
0.029057 0.320117 -0.372350 
-0.052777 0.295300 -0.390183 
-0.111332 0.334417 -0.342617 
-0.186667 0.295300 -0.346683 
-0.242383 0.320117 -0.284167 
-0.305600 0.271250 -0.275567 
-0.279650 0.377617 -0.148650 
-0.356517 0.271250 -0.205483 
-0.345150 0.320117 -0.142700 
0.485067 0.038750 -0.078267 
0.484417 -0.042517 -0.076333 
0.462833 -0.081267 -0.148650 
0.437400 -0.214417 -0.070383 
0.440700 -0.165550 -0.142700 
0.402067 -0.197567 -0.205483 
0.144883 0.152033 -0.445883 
0.224333 0.038750 -0.437133 
0.150317 0.077500 -0.462617 
0.075450 0.038750 -0.485500 
0.284400 -0.081267 -0.394217 
0.222300 -0.042517 -0.437100 
0.149917 -0.085033 -0.461383 
0.077083 -0.042517 -0.484300 
0.001633 -0.081267 -0.486100 
0.319667 -0.197567 -0.318883 
0.271900 -0.165550 -0.375017 
0.202117 -0.214417 -0.394217 
0.142233 -0.172650 -0.437700 
0.068228 -0.214417 -0.437733 
0.000461 -0.165550 -0.463217 
-0.071189 -0.197567 -0.445883 
-0.379283 0.152033 -0.275567 
-0.346400 0.038750 -0.348433 
-0.393517 0.077500 -0.285917 
-0.438433 0.038750 -0.221783 
-0.287050 -0.081267 -0.392300 
-0.347017 -0.042517 -0.346483 
-0.392467 -0.085033 -0.285150 
-0.436767 -0.042517 -0.222967 
-0.461817 -0.081267 -0.151767 
-0.204500 -0.197567 -0.402567 
-0.272650 -0.165550 -0.374467 
-0.312483 -0.214417 -0.314017 
-0.372333 -0.172650 -0.270517 
-0.395217 -0.214417 -0.200150 
-0.440400 -0.165550 -0.143583 
0.379283 -0.152033 -0.275567 
0.346400 -0.038750 -0.348433 
0.393517 -0.077500 -0.285917 
0.438433 -0.038750 -0.221783 
0.287050 0.081267 -0.392300 
0.347017 0.042517 -0.346483 
0.392467 0.085033 -0.285150 
0.436767 0.042517 -0.222967 
0.461817 0.081267 -0.151767 
0.204500 0.197567 -0.402567 
0.272650 0.165550 -0.374467 
0.312483 0.214417 -0.314017 
0.372333 0.172650 -0.270517 
0.395217 0.214417 -0.200150 
0.440400 0.165550 -0.143583 
0.446050 0.197567 -0.070083 
-0.144883 -0.152033 -0.445883 
-0.224333 -0.038750 -0.437133 
-0.150317 -0.077500 -0.462617 
-0.075450 -0.038750 -0.485500 
-0.284400 0.081267 -0.394217 
-0.222300 0.042517 -0.437100 
-0.149917 0.085033 -0.461383 
-0.077083 0.042517 -0.484300 
-0.001633 0.081267 -0.486100 
-0.319667 0.197567 -0.318883 
-0.271900 0.165550 -0.375017 
-0.202117 0.214417 -0.394217 
-0.142233 0.172650 -0.437700 
-0.068228 0.214417 -0.437733 
-0.000461 0.165550 -0.463217 
0.071189 0.197567 -0.445883 
-0.462833 0.081267 -0.148650 
-0.440700 0.165550 -0.142700 
-0.402067 0.197567 -0.205483 
0.022777 -0.487300 -0.070083 
-0.018123 -0.451167 -0.197533 
0.045810 -0.469700 -0.140967 
0.130767 -0.451167 -0.149150 
-0.054968 -0.377617 -0.311900 
0.006082 -0.414250 -0.265783 
0.090548 -0.395867 -0.278667 
0.151300 -0.414250 -0.218600 
0.227800 -0.377617 -0.220033 
-0.085255 -0.271250 -0.402567 
-0.029057 -0.320117 -0.372350 
0.052777 -0.295300 -0.390183 
0.111332 -0.334417 -0.342617 
0.186667 -0.295300 -0.346683 
0.242383 -0.320117 -0.284167 
0.305600 -0.271250 -0.275567 
-0.119923 -0.469700 -0.087133 
-0.101457 -0.451167 -0.170467 
-0.250900 -0.414250 -0.087933 
-0.237067 -0.395867 -0.172233 
-0.161167 -0.414250 -0.211450 
-0.138883 -0.377617 -0.284633 
-0.363117 -0.320117 -0.087433 
-0.354783 -0.295300 -0.170767 
-0.291467 -0.334417 -0.211750 
-0.272050 -0.295300 -0.284633 
-0.195367 -0.320117 -0.318300 
-0.167650 -0.271250 -0.375783 
0.182267 -0.451167 -0.078267 
0.279650 -0.377617 -0.148650 
0.254650 -0.414250 -0.076333 
0.356517 -0.271250 -0.205483 
0.345150 -0.320117 -0.142700 
0.387400 -0.295300 -0.070383 
